ply
format ascii 1.0
element vertex 1277
property float x
property float y
property float z
end_header
0.123461172 -0.070857808 0.497368425
0.126023144 -0.070958771 0.497675657
0.128483772 -0.071000040 0.497550189
0.131031692 -0.071087196 0.497732460
0.133541942 -0.071151212 0.497738123
0.136056930 -0.071215503 0.497731149
0.138815463 -0.071402885 0.498568892
0.141534522 -0.071563959 0.499206394
0.143952265 -0.071569920 0.498746157
0.146368697 -0.071575098 0.498265594
0.148879617 -0.071625598 0.498085320
0.151620850 -0.071783595 0.498635918
0.154155314 -0.071840316 0.498466074
0.156613037 -0.071860142 0.498024076
0.159378693 -0.072018549 0.498525649
0.161975861 -0.072097287 0.498457819
0.164480895 -0.072133362 0.498078376
0.167316988 -0.072311513 0.498662084
0.170123622 -0.072472073 0.499105603
0.172734275 -0.072545834 0.498933315
0.175615236 -0.072729550 0.499498934
0.178146198 -0.072765328 0.499030560
0.180621549 -0.072777785 0.498386174
0.183716074 -0.073036142 0.499407500
0.186284751 -0.073081434 0.498953640
0.188850969 -0.073124669 0.498470038
0.191637531 -0.073251076 0.498537153
0.194651902 -0.073460318 0.499150515
0.197236717 -0.073504299 0.498624861
0.200051263 -0.073631823 0.498651326
0.202739060 -0.073710211 0.498330981
0.205373228 -0.073767513 0.497855723
0.207988307 -0.073816746 0.497315019
0.211241394 -0.074088655 0.498262197
0.214111865 -0.074221671 0.498263270
0.216938376 -0.074336648 0.498134583
0.219779238 -0.074453928 0.498014599
0.222464606 -0.074516572 0.497524887
0.225453332 -0.074678369 0.497694612
0.228514180 -0.074860305 0.497996509
0.231673360 -0.075070232 0.498484701
0.234464020 -0.075157583 0.498162568
0.237244144 -0.075239807 0.497814655
0.240698963 -0.075532094 0.498865366
0.242865905 -0.075418435 0.497249126
0.245851770 -0.075558871 0.497327596
0.248849452 -0.075700112 0.497431368
0.251739055 -0.075806022 0.497326881
0.254426569 -0.075849630 0.496842265
0.257537842 -0.076017544 0.497203708
0.260388702 -0.076106101 0.497081310
0.263364851 -0.076229274 0.497224092
0.266275823 -0.076331459 0.497272849
0.269201487 -0.076435938 0.497383028
0.271506846 -0.076364033 0.496396512
0.274738729 -0.076551698 0.497150838
0.277547628 -0.076619178 0.497180223
0.280225188 -0.076649532 0.497027904
0.283092111 -0.076730706 0.497266352
0.285309494 -0.076636016 0.496428668
-0.273354590 -0.070189506 0.471990258
-0.272362709 -0.070560388 0.474647969
-0.270612091 -0.070739664 0.476078331
-0.268912494 -0.070935719 0.477681786
-0.267243087 -0.071143426 0.479422748
-0.264999956 -0.071200900 0.480207801
-0.262932211 -0.071307056 0.481375068
-0.260908842 -0.071427427 0.482690364
-0.258960277 -0.071570851 0.484210849
-0.255745262 -0.071363732 0.483403534
-0.253586739 -0.071450301 0.484626293
-0.251204282 -0.071474932 0.485468090
-0.248560503 -0.071425065 0.485838234
-0.245658249 -0.071299240 0.485721201
-0.243262142 -0.071319364 0.486625284
-0.241210476 -0.071442015 0.488254964
-0.237956896 -0.071207620 0.487464458
-0.234650031 -0.070952326 0.486543298
-0.232490480 -0.071042314 0.488002777
-0.230042920 -0.071045376 0.488878131
-0.227379128 -0.070981137 0.489298820
-0.225168407 -0.071058549 0.490702808
-0.221540600 -0.070685662 0.488997549
-0.218959302 -0.070642181 0.489567757
-0.216619685 -0.070676684 0.490677983
-0.213818565 -0.070559800 0.490733951
-0.210850805 -0.070384674 0.490377277
-0.208510250 -0.070417404 0.491461337
-0.205106348 -0.070087664 0.490004838
-0.199430808 -0.069800809 0.489656389
-0.197012052 -0.069800712 0.490469038
-0.194541126 -0.069782026 0.491139293
-0.191773564 -0.069655202 0.491034865
-0.189034775 -0.069535866 0.490967423
-0.186308950 -0.069418386 0.490897089
-0.183731854 -0.069354057 0.491186768
-0.181145892 -0.069284752 0.491425544
-0.178622633 -0.069237992 0.491808325
-0.175840139 -0.069088198 0.491442323
-0.173205376 -0.068993226 0.491448700
-0.170651495 -0.068928361 0.491652787
-0.168185994 -0.068897955 0.492086351
-0.165749520 -0.068878837 0.492584705
-0.163021624 -0.068736374 0.492184073
-0.160442308 -0.068653360 0.492191792
-0.157935560 -0.068599477 0.492391765
-0.155399919 -0.068531282 0.492472678
-0.152628571 -0.068355516 0.491763413
-0.150322258 -0.068385825 0.492520571
-0.147556514 -0.068204850 0.491740197
-0.145048112 -0.068138957 0.491772860
-0.142668352 -0.068132408 0.492218792
-0.140337542 -0.068149507 0.492821276
-0.137801602 -0.068065926 0.492681235
-0.134988770 -0.067840420 0.491497934
-0.132863641 -0.067958705 0.492790908
-0.130480483 -0.067947015 0.493128687
-0.128089592 -0.067930862 0.493420780
-0.125627950 -0.067875981 0.493418038
-0.123279490 -0.067881405 0.493840784
-0.120824583 -0.067827366 0.493818104
-0.118295021 -0.067728527 0.493456274
-0.115865320 -0.067684099 0.493478030
-0.113506570 -0.067680217 0.493783504
-0.111131720 -0.067666456 0.494005293
-0.108685389 -0.067607738 0.493887335
-0.106340699 -0.067611121 0.494211763
-0.103963368 -0.067593522 0.494372040
-0.101673111 -0.067633130 0.494940192
-0.099265777 -0.067594968 0.494929135
-0.096821129 -0.067529000 0.494704068
-0.094448693 -0.067511491 0.494823635
-0.092151657 -0.067548424 0.495332927
-0.089623228 -0.067413338 0.494571149
-0.087240726 -0.067383789 0.494574010
-0.084866546 -0.067359306 0.494605005
-0.082456715 -0.067304403 0.494403720
-0.080143623 -0.067327671 0.494768143
-0.077803202 -0.067328788 0.494961649
-0.075302780 -0.067187287 0.494098306
-0.073092245 -0.067303747 0.495124131
-0.070705362 -0.067260250 0.494965851
-0.068429977 -0.067323558 0.495586216
-0.066094674 -0.067330427 0.495783895
-0.059026435 -0.067283817 0.495840281
-0.056693520 -0.067293398 0.496030957
-0.049623575 -0.067231752 0.495898366
-0.042664543 -0.067325875 0.496861339
-0.037940342 -0.067258164 0.496512771
-0.026214452 -0.067202799 0.496390224
-0.021581026 -0.067342661 0.497503370
-0.012197874 -0.067306072 0.497337073
0.016025532 -0.067753226 0.500521541
0.032392155 -0.067449987 0.497906953
0.034739006 -0.067447044 0.497812033
0.044249639 -0.067626789 0.498791516
0.053649493 -0.067603990 0.498185426
0.058250006 -0.067480281 0.497018516
0.060648691 -0.067535251 0.497285843
0.063026704 -0.067563988 0.497353137
0.067898162 -0.067730695 0.498269975
0.070301630 -0.067774579 0.498426825
0.072687350 -0.067799099 0.498433501
0.075067043 -0.067816667 0.498381436
0.079659544 -0.067706898 0.497188985
0.082060032 -0.067742847 0.497247636
0.084567577 -0.067862727 0.497913510
0.086932033 -0.067864425 0.497703046
0.089260496 -0.067838706 0.497282684
0.091562651 -0.067794889 0.496720731
0.093904592 -0.067782000 0.496376246
0.096312568 -0.067816295 0.496367514
0.098746113 -0.067866556 0.496465474
0.101166509 -0.067905664 0.496471435
0.103959069 -0.068187140 0.498237699
0.106193282 -0.068098053 0.497284681
0.108584985 -0.068111666 0.497071207
0.111084424 -0.068190880 0.497324914
0.113696396 -0.068334445 0.498035401
0.115938373 -0.068254367 0.497103930
0.118434750 -0.068324298 0.497253150
0.120888010 -0.068367139 0.497192383
0.123561293 -0.068530396 0.497993827
0.126056090 -0.068590403 0.498030901
0.128430858 -0.068584107 0.497573346
0.130826741 -0.068589181 0.497184932
0.133602291 -0.068789586 0.498197764
0.136165440 -0.068875559 0.498366207
0.138431042 -0.068810694 0.497429043
0.141181916 -0.068985194 0.498207271
0.143861204 -0.069119535 0.498678714
0.146193489 -0.069085516 0.497920126
0.148674190 -0.069121651 0.497652233
0.151560530 -0.069342278 0.498695523
0.154139549 -0.069417633 0.498676270
0.156675652 -0.069471687 0.498487622
0.159169346 -0.069505639 0.498138189
0.161916763 -0.069647774 0.498546958
0.164508998 -0.069719993 0.498437464
0.167224690 -0.069841735 0.498664409
0.169771433 -0.069890514 0.498352587
0.172354981 -0.069952890 0.498120874
0.174870268 -0.069986291 0.497665793
0.178052172 -0.070281945 0.499056548
0.181074813 -0.070507638 0.499929458
0.183638752 -0.070551157 0.499492139
0.186167136 -0.070580103 0.498935580
0.188698098 -0.070609324 0.498365283
0.191253781 -0.070646979 0.497839212
0.194196373 -0.070824862 0.498284847
0.197088644 -0.070980258 0.498554677
0.199746147 -0.071048334 0.498195916
0.202067703 -0.070996806 0.496986181
0.205119744 -0.071200132 0.497547418
0.208196893 -0.071407318 0.498120427
0.211326718 -0.071627527 0.498770207
0.214001998 -0.071690418 0.498313338
0.216859356 -0.071812235 0.498257607
0.219478592 -0.071853392 0.497635633
0.222161338 -0.071914263 0.497146279
0.224981591 -0.072017856 0.496949673
0.228245229 -0.072259605 0.497703552
0.231190100 -0.072396375 0.497733533
0.234400526 -0.072612531 0.498311460
0.236986071 -0.072632641 0.497550458
0.241082460 -0.073110595 0.499932021
0.243335992 -0.073025614 0.498475015
0.246009931 -0.073067322 0.497902066
0.248754308 -0.073128954 0.497485846
0.251627862 -0.073227011 0.497341603
0.254619569 -0.073357217 0.497442305
0.257637382 -0.073492371 0.497606963
0.260249019 -0.073510192 0.497012377
0.263171434 -0.073614679 0.497043073
0.265923858 -0.073670119 0.496785104
0.268615305 -0.073707841 0.496454149
0.271416426 -0.073774733 0.496369481
0.273807734 -0.073730059 0.495587975
0.277192622 -0.073951364 0.496649563
0.280434132 -0.074130736 0.497486740
0.283078134 -0.074150406 0.497312576
0.285569757 -0.074130207 0.496934563
-0.273321897 -0.067742161 0.471969306
-0.271911919 -0.067995414 0.473913819
-0.270248920 -0.068189435 0.475506634
-0.268463343 -0.068355829 0.476966918
-0.266770005 -0.068549015 0.478672743
-0.264814317 -0.068677798 0.479985476
-0.262866586 -0.068811119 0.481384069
-0.261000097 -0.068968505 0.483002931
-0.258315831 -0.068910800 0.483163238
-0.255868554 -0.068915881 0.483807266
-0.253506511 -0.068944320 0.484656274
-0.251206070 -0.068990320 0.485666931
-0.248425007 -0.068903990 0.485779494
-0.245597467 -0.068803020 0.485817432
-0.243030161 -0.068773717 0.486387134
-0.240457773 -0.068742462 0.486965865
-0.238834932 -0.068984941 0.489506751
-0.235259935 -0.068662815 0.488057584
-0.232071012 -0.068447851 0.487377673
-0.230196014 -0.068620093 0.489465445
-0.227385342 -0.068514220 0.489578813
-0.224241957 -0.068304807 0.488954186
-0.221438482 -0.068195544 0.489045739
-0.219006479 -0.068199635 0.489950031
-0.216541186 -0.068193451 0.490779519
-0.213578209 -0.068028711 0.490463078
-0.210935727 -0.067963541 0.490856886
-0.207806185 -0.067738175 0.490084022
-0.205236763 -0.067692354 0.490599245
-0.199930400 -0.067541093 0.491165280
-0.197209924 -0.067439824 0.491243124
-0.194768578 -0.067432806 0.491994321
-0.191503510 -0.067136921 0.490621895
-0.188530356 -0.066937238 0.489933848
-0.185928017 -0.066865884 0.490168005
-0.183497623 -0.066855393 0.490833640
-0.181042552 -0.066835620 0.491416246
-0.178334698 -0.066720858 0.491284013
-0.175628603 -0.066603728 0.491117120
-0.173101574 -0.066552319 0.491417676
-0.170512617 -0.066475414 0.491513342
-0.168006599 -0.066429213 0.491819471
-0.165499941 -0.066381529 0.492098182
-0.162839219 -0.066269860 0.491885543
-0.160520002 -0.066296011 0.492679656
-0.157947540 -0.066216871 0.492675483
-0.155321732 -0.066112697 0.492468059
-0.152729258 -0.066019788 0.492327839
-0.150111005 -0.065912724 0.492065281
-0.147414371 -0.065767355 0.491499871
-0.144980028 -0.065736249 0.491772294
-0.142720640 -0.065784842 0.492626697
-0.140353069 -0.065784477 0.493100345
-0.137986511 -0.065784663 0.493564129
-0.135421053 -0.065688461 0.493290156
-0.132586360 -0.065456010 0.491977215
-0.130288035 -0.065484852 0.492613316
-0.127879485 -0.065458387 0.492820174
-0.125510737 -0.065451793 0.493163556
-0.123140156 -0.065444067 0.493485719
-0.120530806 -0.065306731 0.492817223
-0.118301146 -0.065373860 0.493678927
-0.115947403 -0.065373830 0.494021982
-0.113474496 -0.065305300 0.493835330
-0.111042656 -0.065258108 0.493797958
-0.108704388 -0.065265141 0.494159460
-0.106214777 -0.065179683 0.493809462
-0.103893913 -0.065196343 0.494222075
-0.101610184 -0.065237708 0.494811714
-0.099316522 -0.065274581 0.495357394
-0.096834719 -0.065186687 0.494946003
-0.092039742 -0.065117024 0.494898915
-0.089733317 -0.065145701 0.495343834
-0.087261230 -0.065052494 0.494852841
-0.084853366 -0.065003447 0.494688213
-0.082426794 -0.064936951 0.494381964
-0.080083326 -0.064934045 0.494551301
-0.077767700 -0.064954303 0.494889021
-0.075524122 -0.065037958 0.495701998
-0.073155910 -0.065016299 0.495704561
-0.070757501 -0.064965546 0.495477736
-0.068364337 -0.064916424 0.495255649
-0.059027955 -0.064941853 0.495990306
-0.056706522 -0.064964280 0.496280015
-0.054415625 -0.065025225 0.496857822
-0.052108310 -0.065071255 0.497315824
-0.042738829 -0.065093488 0.497851640
-0.040359695 -0.065041684 0.497532845
-0.033263583 -0.064923927 0.496831954
-0.026225032 -0.064886861 0.496702492
-0.021600036 -0.065052450 0.498049051
0.025317874 -0.065028481 0.497667015
0.030080169 -0.065182023 0.498722076
0.037098143 -0.065119132 0.498023540
0.048900612 -0.065195866 0.498141021
0.053722478 -0.065339938 0.499013156
0.058325905 -0.065216586 0.497818142
0.060686871 -0.065225787 0.497752339
0.063068420 -0.065255627 0.497837186
0.065443456 -0.065276846 0.497849315
0.067875050 -0.065351091 0.498258650
0.070256241 -0.065373473 0.498264879
0.072642349 -0.065398835 0.498286605
0.074993715 -0.065392360 0.498057872
0.077247255 -0.065303601 0.497195035
0.079599790 -0.065301344 0.496983021
0.082057573 -0.065383114 0.497401774
0.084420204 -0.065386645 0.497216970
0.086676404 -0.065309815 0.496412665
0.089184746 -0.065422058 0.497036189
0.091562092 -0.065434918 0.496895432
0.093944490 -0.065450698 0.496767253
0.096303008 -0.065449506 0.496500641
0.098665752 -0.065451212 0.496246129
0.101702757 -0.065889724 0.499291480
0.103566840 -0.065565683 0.496547788
0.106197201 -0.065730445 0.497495979
0.108673789 -0.065794952 0.497673452
0.111066148 -0.065806828 0.497441381
0.113369323 -0.065766521 0.496803582
0.115966894 -0.065895185 0.497430086
0.118317060 -0.065880977 0.496965617
0.120834544 -0.065958701 0.497182161
0.123440422 -0.066080786 0.497719556
0.125869602 -0.066105492 0.497509837
0.128203958 -0.066080436 0.496912807
0.130759627 -0.066168368 0.497151673
0.133696258 -0.066442482 0.498773754
0.136143148 -0.066467911 0.498513073
0.138630450 -0.066511892 0.498377204
0.141129673 -0.066560045 0.498257607
0.143480465 -0.066537820 0.497596562
0.145971343 -0.066580266 0.497404248
0.148504734 -0.066640466 0.497328907
0.151212499 -0.066775799 0.497797698
0.153964981 -0.066926390 0.498362392
0.156602472 -0.067023180 0.498508900
0.159231499 -0.067113481 0.498590052
0.161729559 -0.067146808 0.498230875
0.164559752 -0.067315049 0.498854995
0.167023540 -0.067330763 0.498331070
0.169648111 -0.067409970 0.498260111
0.172254488 -0.067479856 0.498102844
0.175201595 -0.067679502 0.498884380
0.178157806 -0.067877181 0.499631494
0.180454791 -0.067821808 0.498498499
0.182983607 -0.067853943 0.497993290
0.185862660 -0.068013467 0.498405248
0.188620910 -0.068125278 0.498449475
0.191246390 -0.068186931 0.498109907
0.193914831 -0.068262205 0.497853875
0.196820736 -0.068418212 0.498170048
0.199361891 -0.068445221 0.497531712
0.202232555 -0.068583384 0.497686774
0.205366895 -0.068806589 0.498443127
0.207743630 -0.068773769 0.497331858
0.211121231 -0.069069229 0.498581737
0.213804692 -0.069133431 0.498149574
0.216193557 -0.069102071 0.497021794
0.219260365 -0.069285721 0.497433543
0.222033545 -0.069373570 0.497150660
0.225128040 -0.069558829 0.497560948
0.227563992 -0.069538854 0.496501952
0.230969697 -0.069812484 0.497539341
0.234210610 -0.070031039 0.498183638
0.236765578 -0.070042089 0.497357488
0.239170715 -0.070009150 0.496230483
0.243448868 -0.070519499 0.498963237
0.245859236 -0.070483953 0.497845590
0.248738885 -0.070582360 0.497694612
0.251675069 -0.070694722 0.497664452
0.254438847 -0.070756987 0.497308105
0.257259488 -0.070833750 0.497084379
0.260276318 -0.070962548 0.497259617
0.262999386 -0.071009599 0.496899933
0.265678525 -0.071044073 0.496494472
0.268853396 -0.071209244 0.497047603
0.271532804 -0.071241379 0.496720552
0.274458706 -0.071337029 0.496888608
0.277860671 -0.071553580 0.497952968
0.280290812 -0.071518235 0.497322321
0.282578707 -0.071447596 0.496508032
0.285463214 -0.071527801 0.496805191
-0.274833083 -0.065664306 0.474617273
-0.272022903 -0.065574020 0.474160790
-0.270121634 -0.065703243 0.475351661
-0.268271387 -0.065847352 0.476709992
-0.266398817 -0.065988645 0.478105843
-0.264597863 -0.066150509 0.479707032
-0.263018340 -0.066371351 0.481790632
-0.260874599 -0.066452689 0.482913136
-0.258585304 -0.066498220 0.483823031
-0.255667567 -0.066381522 0.483595341
-0.253465921 -0.066450372 0.484758973
-0.251047820 -0.066463351 0.485552400
-0.248421043 -0.066420868 0.485973865
-0.245645493 -0.066337451 0.486124009
-0.242801070 -0.066233657 0.486148983
-0.240036294 -0.066149764 0.486340731
-0.237299711 -0.066072099 0.486595899
-0.234677956 -0.066025220 0.487092614
-0.232547671 -0.066117167 0.488627613
-0.229807705 -0.066036001 0.488893747
-0.227106765 -0.065964527 0.489237577
-0.224341512 -0.065872706 0.489433289
-0.221706510 -0.065817647 0.489903122
-0.219051749 -0.065755524 0.490319371
-0.216208488 -0.065634891 0.490295440
-0.213177875 -0.065454088 0.489814728
-0.210609987 -0.065412931 0.490371108
-0.208114833 -0.065393776 0.491085112
-0.202691779 -0.065215193 0.491429478
-0.200090423 -0.065158695 0.491831064
-0.197543770 -0.065118946 0.492346555
-0.188578367 -0.064540662 0.490324885
-0.185868442 -0.064434722 0.490275383
-0.183240324 -0.064354837 0.490407795
-0.180772141 -0.064329863 0.490942717
-0.178515628 -0.064380646 0.492041171
-0.175544634 -0.064171731 0.491137922
-0.172964588 -0.064102046 0.491281956
-0.170367897 -0.064024240 0.491346657
-0.167775810 -0.063946076 0.491391540
-0.165309161 -0.063914254 0.491775960
-0.162788987 -0.063860610 0.491976082
-0.159751847 -0.063599654 0.490560621
-0.157680392 -0.063721173 0.492078543
-0.155158371 -0.063661627 0.492183506
-0.152663425 -0.063611604 0.492346019
-0.150272831 -0.063604288 0.492823273
-0.147679254 -0.063509516 0.492607325
-0.145004660 -0.063376345 0.492076963
-0.142715767 -0.063410215 0.492828190
-0.140446261 -0.063454084 0.493643373
-0.137765974 -0.063310757 0.492987543
-0.135312408 -0.063268527 0.493103683
-0.132645041 -0.063123144 0.492400825
-0.130247787 -0.063103460 0.492664009
-0.127904654 -0.063109830 0.493117362
-0.125542805 -0.063107133 0.493487000
-0.123125821 -0.063076176 0.493622661
-0.120577045 -0.062975258 0.493197709
-0.118070416 -0.062892862 0.492904574
-0.115797594 -0.062934272 0.493569553
-0.113291241 -0.062847942 0.493220806
-0.111047395 -0.062906757 0.493999511
-0.108695671 -0.062905751 0.494297743
-0.106315672 -0.062888063 0.494453698
-0.103939258 -0.062871829 0.494610369
-0.101519890 -0.062828362 0.494542003
-0.099063054 -0.062759168 0.494260490
-0.096800111 -0.062812522 0.494934261
-0.094392352 -0.062772311 0.494860917
-0.091982968 -0.062729023 0.494753599
-0.089700647 -0.062772483 0.495321244
-0.087364428 -0.062779635 0.495593488
-0.084813230 -0.062628508 0.494607180
-0.082453869 -0.062614568 0.494695067
-0.080111489 -0.062613167 0.494873673
-0.077747181 -0.062594138 0.494904757
-0.073199153 -0.062707387 0.496140093
-0.070724495 -0.062592164 0.495386869
-0.068317637 -0.062531233 0.495055556
-0.063654490 -0.062544130 0.495438218
-0.061334793 -0.062563576 0.495722353
-0.059017394 -0.062587097 0.496032208
-0.056711741 -0.062625624 0.496454626
-0.042693909 -0.062678061 0.497447312
-0.037934080 -0.062561296 0.496667624
-0.035641529 -0.062645108 0.497398823
-0.033218179 -0.062494785 0.496265709
-0.005170211 -0.062614895 0.497579008
-0.002828838 -0.062649317 0.497853607
0.011223621 -0.062574409 0.497173816
0.025317116 -0.062682621 0.497790009
0.030118614 -0.062912531 0.499496937
0.053405639 -0.062612347 0.496212244
0.058353528 -0.062894627 0.498199075
0.063055061 -0.062889159 0.497879535
0.065395981 -0.062877283 0.497637421
0.067619875 -0.062757656 0.496535867
0.072344907 -0.062782377 0.496400118
0.074669860 -0.062762044 0.496062487
0.077312209 -0.063001625 0.497770876
0.079616934 -0.062960088 0.497249544
0.081982121 -0.062967390 0.497105956
0.084329359 -0.062960938 0.496845394
0.086629875 -0.062920906 0.496311456
0.088994712 -0.062928528 0.496144563
0.091411598 -0.062971659 0.496248424
0.093992054 -0.063122489 0.497191101
0.096224159 -0.063037761 0.496268362
0.098568663 -0.063028999 0.495934457
0.101065561 -0.063115850 0.496342391
0.103544071 -0.063187554 0.496620327
0.105841748 -0.063148223 0.496014833
0.108397156 -0.063261062 0.496593446
0.110865183 -0.063319199 0.496730864
0.113290921 -0.063351303 0.496652216
0.115808085 -0.063432209 0.496944010
0.118285120 -0.063488379 0.497029364
0.120853804 -0.063590601 0.497462243
0.123306334 -0.063628979 0.497382581
0.125683576 -0.063627839 0.496980935
0.128185079 -0.063688524 0.497049004
0.130673945 -0.063740902 0.497038245
0.133202434 -0.063810393 0.497146845
0.136134624 -0.064067505 0.498701006
0.138554379 -0.064078763 0.498325795
0.140968606 -0.064087190 0.497913986
0.143498376 -0.064147018 0.497886688
0.145899072 -0.064148188 0.497388899
0.148628235 -0.064291462 0.497976840
0.151191190 -0.064359471 0.497965008
0.153759211 -0.064427517 0.497936875
0.156471178 -0.064552911 0.498334855
0.159103587 -0.064642228 0.498436630
0.161636829 -0.064689241 0.498195231
0.164297581 -0.064785205 0.498313397
0.167086169 -0.064928107 0.498774320
0.169551104 -0.064943008 0.498234212
0.172084242 -0.064983316 0.497872293
0.174929842 -0.065138899 0.498375416
0.177764565 -0.065286279 0.498796433
0.180500299 -0.065393873 0.498894632
0.182906240 -0.065380774 0.498055220
0.185895294 -0.065573759 0.498767942
0.188492402 -0.065625340 0.498386919
0.191125959 -0.065688193 0.498075217
0.194179207 -0.065891922 0.498813897
0.196808070 -0.065948427 0.498420745
0.199390411 -0.065988198 0.497886539
0.202045515 -0.066050842 0.497510999
0.205080792 -0.066234849 0.498034298
0.208010361 -0.066380814 0.498256505
0.211042404 -0.066555701 0.498681933
0.213342294 -0.066498406 0.497357368
0.216007426 -0.066555023 0.496877879
0.219320938 -0.066807933 0.497854084
0.221947163 -0.066848233 0.497238159
0.224521935 -0.066872396 0.496499538
0.227260873 -0.066944443 0.496115416
0.230200455 -0.067073472 0.496153444
0.232616261 -0.067048825 0.495058477
0.236440778 -0.067426488 0.496937037
0.239032403 -0.067448415 0.496199310
0.242201462 -0.067631178 0.496655762
0.245509446 -0.067848660 0.497379214
0.248786062 -0.068053193 0.498022825
0.251437426 -0.068084367 0.497418880
0.254045993 -0.068103507 0.496754199
0.256948590 -0.068200395 0.496686697
0.260135531 -0.068370193 0.497182161
0.262963742 -0.068443365 0.497011513
0.265651494 -0.068479002 0.496609688
0.268589050 -0.068577811 0.496710658
0.271924317 -0.068775408 0.497574210
0.274639487 -0.068814002 0.497338355
0.277384311 -0.068859309 0.497206181
0.279629230 -0.068780869 0.496239245
0.282348633 -0.068819530 0.496178299
0.285536468 -0.068970732 0.496990889
-0.273175597 -0.062830731 0.471795321
-0.271958500 -0.063109986 0.474103898
-0.270218164 -0.063271813 0.475591749
-0.268205523 -0.063372277 0.476677746
-0.266776264 -0.063613750 0.478882641
-0.264770299 -0.063720927 0.480133116
-0.262962162 -0.063878253 0.481815010
-0.260938197 -0.063985676 0.483171493
-0.258043438 -0.063879669 0.482962310
-0.255844623 -0.063945606 0.484095484
-0.253422260 -0.063956507 0.484852105
-0.250881910 -0.063937634 0.485418946
-0.248366550 -0.063924886 0.486064553
-0.245347470 -0.063781038 0.485740423
-0.242767200 -0.063749596 0.486295849
-0.240217030 -0.063725576 0.486929417
-0.237137631 -0.063559324 0.486492574
-0.234690383 -0.063560896 0.487353772
-0.232252046 -0.063565046 0.488247573
-0.229637250 -0.063520581 0.488777161
-0.227055490 -0.063484505 0.489377379
-0.224400625 -0.063427076 0.489816159
-0.221765831 -0.063374206 0.490290970
-0.218898401 -0.063253075 0.490235180
-0.216189072 -0.063175492 0.490512192
-0.213104129 -0.062985256 0.489906967
-0.210455894 -0.062921286 0.490274936
-0.207994074 -0.062912315 0.491063446
-0.202521965 -0.062724181 0.491280794
-0.197317094 -0.062612064 0.492043197
-0.191311985 -0.062234405 0.490657449
-0.188642964 -0.062148392 0.490749240
-0.185792774 -0.061999813 0.490330130
-0.183221504 -0.061941743 0.490609825
-0.180872023 -0.061958205 0.491464436
-0.175195500 -0.061648794 0.490406334
-0.172713265 -0.061614852 0.490810931
-0.170217276 -0.061575074 0.491152585
-0.167817071 -0.061569396 0.491750419
-0.165257633 -0.061504405 0.491858035
-0.162577406 -0.061391972 0.491568863
-0.159990951 -0.061312255 0.491524190
-0.157468572 -0.061255138 0.491643965
-0.155104697 -0.061258968 0.492237031
-0.152555838 -0.061188821 0.492219836
-0.150167152 -0.061181802 0.492694706
-0.147940949 -0.061241928 0.493695766
-0.145063043 -0.061029907 0.492486954
-0.142666236 -0.061016724 0.492866367
-0.140330568 -0.061029762 0.493443191
-0.137930110 -0.061014663 0.493778408
-0.135480195 -0.060976885 0.493915826
-0.132886410 -0.060871940 0.493494362
-0.130396873 -0.060811907 0.493422598
-0.127917007 -0.060754340 0.493356824
-0.125568822 -0.060758427 0.493778318
-0.123130701 -0.060718391 0.493828416
-0.120570391 -0.060615454 0.493353695
-0.117979743 -0.060492951 0.492706180
-0.115591012 -0.060471192 0.492866486
-0.113387533 -0.060547534 0.493815154
-0.111049429 -0.060553793 0.494181126
-0.108732641 -0.060572267 0.494635910
-0.106365189 -0.060562804 0.494851589
-0.104000017 -0.060554326 0.495064586
-0.101603970 -0.060527146 0.495114177
-0.099089026 -0.060426258 0.494550079
-0.096762791 -0.060438424 0.494900882
-0.094308570 -0.060369346 0.494576663
-0.091923058 -0.060341954 0.494584084
-0.089681774 -0.060410358 0.495367616
-0.087386020 -0.060444847 0.495864451
-0.084844612 -0.060306713 0.494936079
-0.082468234 -0.060281452 0.494924992
-0.080080658 -0.060246374 0.494824797
-0.077721924 -0.060231637 0.494883478
-0.075374044 -0.060224731 0.494998544
-0.073060825 -0.060246050 0.495337993
-0.068316132 -0.060189150 0.495176077
-0.065876238 -0.060096193 0.494553387
-0.063645214 -0.060194045 0.495493978
-0.059007809 -0.060234286 0.496076107
-0.051890954 -0.060122762 0.495485723
-0.044926114 -0.060181003 0.496240944
-0.040189773 -0.060092434 0.495666057
0.058381032 -0.060570262 0.498572350
0.060720708 -0.060555335 0.498316020
0.063042574 -0.060524441 0.497921824
0.067676045 -0.060460012 0.497091919
0.070064664 -0.060493149 0.497203708
0.072362974 -0.060448717 0.496670812
0.074766457 -0.060492221 0.496852815
0.077141665 -0.060510911 0.496823162
0.079600424 -0.060592137 0.497298717
0.081903838 -0.060553871 0.496785432
0.084210277 -0.060519941 0.496299505
0.086663693 -0.060590666 0.496663213
0.088832073 -0.060463671 0.495397508
0.091044933 -0.060372751 0.494419336
0.093404800 -0.060381468 0.494248152
0.096035205 -0.060560409 0.495460093
0.098479636 -0.060616355 0.495655090
0.101065569 -0.060754776 0.496513635
0.103428118 -0.060755704 0.496237725
0.105740935 -0.060728081 0.495718211
0.108176425 -0.060770601 0.495760500
0.110771380 -0.060899030 0.496491700
0.113197140 -0.060931049 0.496424854
0.115655385 -0.060978930 0.496475160
0.118393399 -0.061169479 0.497673899
0.120847732 -0.061208893 0.497629583
0.123271324 -0.061231554 0.497436315
0.125751793 -0.061281122 0.497448564
0.128185138 -0.061306346 0.497249782
0.130615696 -0.061329413 0.497020036
0.133147806 -0.061398514 0.497149199
0.135725498 -0.061485887 0.497411609
0.138410956 -0.061618257 0.498022467
0.140831053 -0.061630048 0.497643441
0.143388137 -0.061700452 0.497722566
0.146105677 -0.061836500 0.498314947
0.148663476 -0.061901689 0.498319596
0.151344329 -0.062015280 0.498697311
0.153810844 -0.062038895 0.498334885
0.156259656 -0.062054820 0.497894794
0.158694103 -0.062064692 0.497390151
0.161466762 -0.062204633 0.497910649
0.164174840 -0.062315982 0.498183846
0.166973561 -0.062458068 0.498684078
0.169557407 -0.062516905 0.498501480
0.171960071 -0.062508292 0.497764081
0.174660906 -0.062606856 0.497863084
0.177243948 -0.062661134 0.497592002
0.180580243 -0.062976696 0.499375552
0.182860255 -0.062920444 0.498191744
0.185183749 -0.062880494 0.497122496
0.188294172 -0.063105382 0.498129189
0.190861896 -0.063145012 0.497655153
0.194194540 -0.063433580 0.499124020
0.196501315 -0.063384071 0.497915566
0.199397862 -0.063523747 0.498178303
0.202390715 -0.063690379 0.498635501
0.205120280 -0.063771218 0.498405457
0.207656443 -0.063790798 0.497684032
0.210594773 -0.063932076 0.497899801
0.213201836 -0.063970737 0.497304946
0.215812489 -0.064009644 0.496703476
0.219208792 -0.064278118 0.497872978
0.221818268 -0.064312510 0.497220904
0.224316090 -0.064314201 0.496313065
0.226724446 -0.064290546 0.495209724
0.229405373 -0.064343944 0.494701475
0.232417688 -0.064488217 0.494893551
0.235527650 -0.064656295 0.495271116
0.239098266 -0.064946041 0.496584296
0.242276758 -0.065124437 0.497052431
0.245274484 -0.065251142 0.497138470
0.248102099 -0.065330535 0.496880978
0.250953853 -0.065414689 0.496680766
0.253944278 -0.065533035 0.496764392
0.256702214 -0.065589689 0.496409029
0.259616017 -0.065684743 0.496376783
0.263013691 -0.065899260 0.497281909
0.265712917 -0.065936409 0.496887743
0.268039346 -0.065881275 0.495843738
0.271374822 -0.066072926 0.496704817
0.274495453 -0.066209242 0.497199237
0.276881158 -0.066167466 0.496410996
0.279051185 -0.066075422 0.495304555
0.281788319 -0.066118181 0.495269388
0.282986373 -0.065802336 0.492611915
-0.271414459 -0.060003892 0.468795955
-0.271527737 -0.060565453 0.473409623
-0.269660920 -0.060691535 0.474681735
-0.268630922 -0.061010007 0.477518857
-0.267232925 -0.061250038 0.479801536
-0.264844447 -0.061265443 0.480380177
-0.262681752 -0.061333913 0.481426835
-0.260964662 -0.061508760 0.483359098
-0.258105189 -0.061415199 0.483228177
-0.255900830 -0.061477292 0.484363854
-0.253350675 -0.061456773 0.484887987
-0.250861049 -0.061450768 0.485561520
-0.247965977 -0.061344434 0.485472769
-0.245518103 -0.061347794 0.486279249
-0.243136615 -0.061368059 0.487244964
-0.239811197 -0.061148152 0.486322522
-0.237277880 -0.061127860 0.487002581
-0.234859526 -0.061137181 0.487933367
-0.231799573 -0.060978010 0.487529457
-0.229665011 -0.061061583 0.489074349
-0.227077410 -0.061025321 0.489666551
-0.224416852 -0.060968544 0.490096807
-0.221686974 -0.060891587 0.490364581
-0.218846947 -0.060782421 0.490369707
-0.216263548 -0.060742993 0.490932912
-0.210424915 -0.060468648 0.490455657
-0.207658663 -0.060371328 0.490524650
-0.204982609 -0.060298361 0.490780473
-0.199549258 -0.060122944 0.491014719
-0.196768463 -0.060012620 0.490926087
-0.194058642 -0.059921559 0.490979701
-0.191396251 -0.059843164 0.491121739
-0.188326374 -0.059633829 0.490171611
-0.185711443 -0.059565116 0.490359634
-0.181001440 -0.059593678 0.492056876
-0.178589821 -0.059589811 0.492733240
-0.175293967 -0.059286863 0.490917414
-0.172696590 -0.059215147 0.490996569
-0.170210436 -0.059180174 0.491363406
-0.167763069 -0.059158005 0.491820216
-0.165203795 -0.059095252 0.491923124
-0.162763044 -0.059073776 0.492353052
-0.159983948 -0.058927134 0.491722345
-0.157533884 -0.058899187 0.492065012
-0.155050442 -0.058857795 0.492279112
-0.152568400 -0.058815759 0.492471963
-0.149833947 -0.058673650 0.491809964
-0.147839308 -0.058821417 0.493562877
-0.145348236 -0.058773354 0.493658721
-0.142565072 -0.058603700 0.492716908
-0.140224978 -0.058613639 0.493269324
-0.138004780 -0.058674969 0.494240791
-0.135545567 -0.058635131 0.494346172
-0.133307919 -0.058691517 0.495249361
-0.130184576 -0.058353037 0.492805123
-0.127926573 -0.058397193 0.493577093
-0.125496522 -0.058363073 0.493674666
-0.122783244 -0.058193494 0.492612481
-0.120376408 -0.058165461 0.492734730
-0.117971942 -0.058137562 0.492845803
-0.115590505 -0.058120195 0.493033946
-0.111061394 -0.058206022 0.494399250
-0.108658418 -0.058177728 0.494460613
-0.106347628 -0.058198716 0.494929850
-0.104074366 -0.058241747 0.495576262
-0.101329103 -0.058016598 0.493929476
-0.099122956 -0.058096848 0.494871974
-0.096785799 -0.058102429 0.495168924
-0.091902435 -0.057982810 0.494618714
-0.089560419 -0.057982955 0.494840771
-0.087249421 -0.058003817 0.495230645
-0.084975965 -0.058051556 0.495841771
-0.079928450 -0.057793707 0.494019121
-0.077599064 -0.057798039 0.494233847
-0.066048354 -0.057910070 0.495969087
-0.063620381 -0.057830587 0.495422274
-0.058992401 -0.057876643 0.496064961
-0.056672309 -0.057896420 0.496349007
0.034888469 -0.058308329 0.500491858
0.044292834 -0.058269117 0.499823093
0.048965361 -0.058219992 0.499203473
0.058375217 -0.058210377 0.498654425
0.067605816 -0.058049884 0.496712774
0.069929540 -0.058029905 0.496382982
0.072411366 -0.058138184 0.497142881
0.074744709 -0.058124229 0.496849746
0.077094562 -0.058123600 0.496662945
0.079435050 -0.058116201 0.496410459
0.081716716 -0.058067456 0.495796859
0.084149271 -0.058125690 0.496088505
0.086325422 -0.058008503 0.494874597
0.088849708 -0.058125306 0.495648146
0.090927951 -0.057951845 0.493937910
0.093253538 -0.057940822 0.493603677
0.095634542 -0.057963956 0.493550986
0.097776040 -0.057844337 0.492273599
0.100010388 -0.057783987 0.491491616
0.102727555 -0.057999033 0.493041098
0.105550699 -0.058263034 0.494993985
0.108019181 -0.058324039 0.495209992
0.110530019 -0.058404863 0.495582610
0.113152221 -0.058539964 0.496403307
0.115728207 -0.058646154 0.496965945
0.118182592 -0.058687743 0.496968597
0.120751068 -0.058783282 0.497415096
0.123235442 -0.058835026 0.497477829
0.125765324 -0.058906168 0.497691184
0.128105804 -0.058887653 0.497133702
0.130477056 -0.058883745 0.496686697
0.133090168 -0.058987230 0.497131258
0.135836080 -0.059144937 0.498017251
0.138334140 -0.059191193 0.497949421
0.140844703 -0.059241179 0.497897923
0.143313915 -0.059272453 0.497673959
0.145955861 -0.059373002 0.498015970
0.147772685 -0.059140142 0.495547563
0.151293188 -0.059585724 0.498747051
0.153785586 -0.059618823 0.498474121
0.156135872 -0.059596721 0.497723997
0.158683717 -0.059649620 0.497584134
0.161455646 -0.059783947 0.498106003
0.164033532 -0.059843592 0.497987449
0.166782662 -0.059963126 0.498349369
0.169537395 -0.060081288 0.498681009
0.172206745 -0.060166337 0.498719364
0.174358755 -0.060070850 0.497245044
0.177413061 -0.060284633 0.498313129
0.180186525 -0.060398571 0.498535812
0.182423458 -0.060332067 0.497252434
0.184935719 -0.060357247 0.496709347
0.187855914 -0.060513254 0.497224957
0.190581694 -0.060603477 0.497181684
0.193620190 -0.060789678 0.497907192
0.196683481 -0.060978971 0.498638451
0.199459523 -0.061075699 0.498595119
0.201770902 -0.061029583 0.497371733
0.204746336 -0.061183091 0.497761309
0.207436427 -0.061248764 0.497421592
0.210221872 -0.061340787 0.497283190
0.213180661 -0.061480723 0.497520536
0.216140538 -0.061617840 0.497723073
0.218757600 -0.061655279 0.497111499
0.221574590 -0.061747681 0.496936321
0.223920986 -0.061708413 0.495697975
0.225760013 -0.061531790 0.493358523
0.224769145 -0.060596179 0.484951675
0.225906193 -0.060248248 0.481270790
0.231894881 -0.061187942 0.487873495
0.238307834 -0.062218722 0.495182544
0.242724076 -0.062712215 0.498205692
0.244876951 -0.062616885 0.496560872
0.247890696 -0.062741451 0.496678323
0.250815600 -0.062841304 0.496619761
0.253666103 -0.062920786 0.496423811
0.256617963 -0.063023679 0.496440023
0.259572744 -0.063125327 0.496477425
0.263034135 -0.063347079 0.497493058
0.265671164 -0.063368000 0.496970057
0.268080920 -0.063334912 0.496068150
0.270118058 -0.063215300 0.494538397
0.274792075 -0.063709326 0.497857451
0.277075231 -0.063645095 0.496865332
0.279373020 -0.063585408 0.495967329
0.281976312 -0.063595772 0.495676279
0.285095960 -0.063721418 0.496345669
-0.275419474 -0.058431830 0.475757748
-0.270901620 -0.057986893 0.472375393
-0.269731402 -0.058257014 0.474877030
-0.268803924 -0.058584996 0.477911443
-0.266839117 -0.058690879 0.479192734
-0.264529139 -0.058722172 0.479919434
-0.262529165 -0.058823559 0.481270969
-0.260283113 -0.058871269 0.482232541
-0.258435339 -0.059010901 0.483993918
-0.255577147 -0.058920361 0.483909458
-0.253275365 -0.058957636 0.484912306
-0.250453144 -0.058873415 0.484950006
-0.247695059 -0.058802821 0.485129058
-0.245431572 -0.058849499 0.486302853
-0.243243158 -0.058915395 0.487661391
-0.239741266 -0.058661349 0.486389667
-0.237320080 -0.058669318 0.487304509
-0.234783530 -0.058648735 0.487996399
-0.232470557 -0.058684260 0.489166677
-0.229750052 -0.058616672 0.489485562
-0.227006570 -0.058541805 0.489747405
-0.224527970 -0.058534466 0.490576237
-0.221216515 -0.058307551 0.489562362
-0.218814984 -0.058318190 0.490538836
-0.216111496 -0.058247797 0.490829855
-0.213378772 -0.058167931 0.491033942
-0.210290998 -0.057988416 0.490386814
-0.207565799 -0.057905972 0.490548790
-0.204871699 -0.057830460 0.490758181
-0.202199370 -0.057759464 0.490993559
-0.199256897 -0.057608757 0.490537047
-0.196771532 -0.057588235 0.491174549
-0.194087505 -0.057508435 0.491292387
-0.191095412 -0.057334308 0.490587473
-0.188492239 -0.057274021 0.490839481
-0.185668379 -0.057144359 0.490480095
-0.183114454 -0.057095572 0.490797460
-0.180919588 -0.057159025 0.492064983
-0.177580103 -0.056857809 0.490174830
-0.175356328 -0.056910567 0.491317749
-0.172899470 -0.056888204 0.491796702
-0.170201942 -0.056785006 0.491559833
-0.167512864 -0.056681830 0.491304874
-0.165228963 -0.056714855 0.492213994
-0.162643462 -0.056643896 0.492204428
-0.159988225 -0.056546282 0.491945833
-0.157410771 -0.056473721 0.491887957
-0.155026630 -0.056469440 0.492408514
-0.152609333 -0.056452870 0.492806435
-0.150259003 -0.056461014 0.493404895
-0.147336200 -0.056250956 0.492079705
-0.145035788 -0.056275621 0.492791474
-0.142497510 -0.056207381 0.492674649
-0.140122756 -0.056202505 0.493098289
-0.137591332 -0.056133620 0.492945671
-0.135155648 -0.056102190 0.493107259
-0.132665426 -0.056046661 0.493042797
-0.130190283 -0.055995703 0.493004292
-0.127910450 -0.056028493 0.493689954
-0.125496224 -0.056002636 0.493845940
-0.122888446 -0.055887856 0.493204176
-0.120415047 -0.055830978 0.493059874
-0.117944345 -0.055773191 0.492894799
-0.115550824 -0.055750392 0.493026584
-0.113174722 -0.055735298 0.493214637
-0.110831164 -0.055736020 0.493531346
-0.108523756 -0.055755429 0.494002491
-0.101284891 -0.055645578 0.493861437
-0.098973028 -0.055662517 0.494268775
-0.096757293 -0.055735718 0.495166391
-0.094387174 -0.055721521 0.495278060
-0.091837555 -0.055598002 0.494408131
-0.089465462 -0.055578388 0.494452506
-0.084956981 -0.055690691 0.495863646
-0.082365721 -0.055524547 0.494576931
-0.079847589 -0.055399518 0.493647277
-0.077491805 -0.055383082 0.493676871
-0.075192116 -0.055407047 0.494058728
-0.068313926 -0.055506259 0.495404482
-0.063641906 -0.055509511 0.495705634
-0.049501903 -0.055386763 0.495270491
-0.019196080 -0.055488780 0.496948898
0.048937324 -0.055833749 0.499039024
0.051257323 -0.055797201 0.498605818
0.058361441 -0.055843268 0.498662114
0.065275326 -0.055717226 0.497125328
0.072269797 -0.055678103 0.496303886
0.074666046 -0.055715088 0.496461421
0.077035569 -0.055730518 0.496419191
0.079305083 -0.055674866 0.495736003
0.081635714 -0.055664103 0.495444864
0.083881445 -0.055597719 0.494650632
0.086188138 -0.055574283 0.494230390
0.088085651 -0.055295262 0.491529763
0.089579664 -0.054783907 0.486758262
0.090746276 -0.054103076 0.480476916
0.102125846 -0.054093160 0.479087383
0.105077945 -0.054441899 0.481883913
0.108022787 -0.054772094 0.484501928
0.112376124 -0.055787746 0.493164808
0.114789277 -0.055818390 0.493102670
0.118010893 -0.056233093 0.496418923
0.120350666 -0.056219570 0.495940447
0.123053983 -0.056373160 0.496922851
0.125513315 -0.056411341 0.496874124
0.127879918 -0.056407236 0.496439874
0.130441844 -0.056487914 0.496738106
0.133005500 -0.056566488 0.497003317
0.135672912 -0.056685697 0.497610360
0.138319775 -0.056792405 0.498091906
0.140782475 -0.056821197 0.497874826
0.143302843 -0.056871969 0.497835249
0.145603284 -0.056835264 0.497015089
0.148144275 -0.056892201 0.496998787
0.150928125 -0.057039160 0.497751772
0.153360143 -0.057050671 0.497305930
0.156045720 -0.057154760 0.497650474
0.158568442 -0.057197001 0.497439235
0.161121190 -0.057248708 0.497293442
0.163785264 -0.057337917 0.497455955
0.166501403 -0.057442557 0.497734070
0.169503272 -0.057641432 0.498809010
0.171804264 -0.057599772 0.497784287
0.174514443 -0.057694610 0.497922182
0.177580491 -0.057902936 0.499019593
0.179942936 -0.057879388 0.498100072
0.182299867 -0.057854775 0.497155815
0.184817508 -0.057881199 0.496634036
0.187761083 -0.058038667 0.497218519
0.190499038 -0.058129419 0.497212648
0.194062099 -0.058466528 0.499293059
0.196200415 -0.058371387 0.497664094
0.198950678 -0.058458481 0.497574836
0.201790407 -0.058569487 0.497672766
0.204496190 -0.058639474 0.497406840
0.207278445 -0.058729544 0.497297019
0.210160524 -0.058845516 0.497392684
0.213093460 -0.058972925 0.497571766
0.216075838 -0.059111021 0.497828573
0.218719333 -0.059154391 0.497278005
0.221343935 -0.059191816 0.496670902
0.223740324 -0.059168138 0.495547503
0.215277985 -0.056304991 0.470686823
0.215828940 -0.055835914 0.465892404
0.214582935 -0.054917101 0.457370132
0.227406278 -0.057580311 0.478658974
0.237338260 -0.059463169 0.493398905
0.241796136 -0.059949704 0.496528208
0.245164052 -0.060158830 0.497364312
0.248096853 -0.060258102 0.497305840
0.250878394 -0.060319066 0.496950656
0.253602386 -0.060365189 0.496497124
0.256332755 -0.060411979 0.496076882
0.260238886 -0.060732313 0.497930944
0.263197601 -0.060827538 0.497970968
0.265548140 -0.060781803 0.496896863
0.268328339 -0.060834415 0.496670872
0.271317303 -0.060932986 0.496866316
0.273415834 -0.060831670 0.495482951
0.277199805 -0.061103806 0.497194350
0.279870242 -0.061127797 0.496941596
0.282166153 -0.061070353 0.496087223
0.283381045 -0.060782123 0.493422359
-0.276857167 -0.056266580 0.478286833
-0.271167219 -0.055602517 0.472896844
-0.270959347 -0.056060735 0.477110565
-0.268939257 -0.056148984 0.478236586
-0.266811699 -0.056216262 0.479240686
-0.264523804 -0.056250744 0.480019063
-0.262356758 -0.056311879 0.481076270
-0.260727972 -0.056490842 0.483189911
-0.257925719 -0.056416631 0.483183354
-0.255438864 -0.056410700 0.483801693
-0.252542764 -0.056313470 0.483673245
-0.250073165 -0.056310464 0.484386832
-0.247459114 -0.056274630 0.484847933
-0.244893476 -0.056249294 0.485425502
-0.242634922 -0.056294776 0.486638010
-0.239899635 -0.056229554 0.486913323
-0.237294540 -0.056193911 0.487460196
-0.234940901 -0.056217786 0.488536865
-0.231227294 -0.055913411 0.486767381
-0.229145244 -0.056001384 0.488418192
-0.226951882 -0.056063876 0.489854336
-0.223605096 -0.055839784 0.488786817
-0.221098885 -0.055823088 0.489531487
-0.218554795 -0.055796470 0.490186840
-0.215900406 -0.055740856 0.490582794
-0.212932214 -0.055602163 0.490239382
-0.210066020 -0.055487294 0.490095377
-0.207741395 -0.055514582 0.491197467
-0.204846561 -0.055388447 0.490931332
-0.201838315 -0.055228356 0.490349263
-0.196569502 -0.055106327 0.490900964
-0.194401622 -0.055175599 0.492317468
-0.191062421 -0.054910097 0.490730584
-0.188587636 -0.054889522 0.491314203
-0.182878852 -0.054620303 0.490388066
-0.180194393 -0.054531917 0.490312546
-0.175007522 -0.054404810 0.490555882
-0.172880918 -0.054485898 0.491957575
-0.170188665 -0.054388590 0.491732478
-0.167578638 -0.054315262 0.491706431
-0.164804161 -0.054185845 0.491154283
-0.162295833 -0.054141510 0.491355717
-0.159807339 -0.054102678 0.491590500
-0.157343462 -0.054071222 0.491875917
-0.154981703 -0.054074518 0.492461652
-0.152606755 -0.054073337 0.492991418
-0.149902180 -0.053953573 0.492423624
-0.147577345 -0.053968918 0.493072987
-0.144796252 -0.053815287 0.492162466
-0.142459527 -0.053824525 0.492725611
-0.139985338 -0.053781357 0.492794394
-0.137364879 -0.053679641 0.492311358
-0.135031492 -0.053688589 0.492828697
-0.132685363 -0.053692788 0.493288755
-0.127942309 -0.053680599 0.493979961
-0.125532031 -0.053657718 0.494151324
-0.123104006 -0.053626310 0.494231254
-0.120355591 -0.053451475 0.492975533
-0.117913708 -0.053408612 0.492923379
-0.115542650 -0.053396825 0.493145883
-0.113175608 -0.053386521 0.493370384
-0.110752054 -0.053348642 0.493328452
-0.108485326 -0.053386372 0.493974775
-0.106166027 -0.053399425 0.494382054
-0.103787743 -0.053382799 0.494504124
-0.098968387 -0.053313617 0.494383901
-0.096656814 -0.053330764 0.494788378
-0.094261810 -0.053301670 0.494754255
-0.091774628 -0.053217709 0.494201154
-0.089418486 -0.053207427 0.494322747
-0.084760524 -0.053219516 0.494842857
-0.075195156 -0.053073168 0.494196892
-0.072909378 -0.053107824 0.494679034
-0.065924421 -0.053124234 0.495267123
-0.063622445 -0.053152699 0.495663822
0.072211318 -0.053288482 0.496028602
0.074566126 -0.053295653 0.495924860
0.076947331 -0.053320710 0.495979875
0.079283915 -0.053314324 0.495734662
0.081103072 -0.052970391 0.492344081
0.082733862 -0.052526116 0.488015592
0.083724074 -0.050342456 0.467321754
0.083923735 -0.049162030 0.456153810
0.085907407 -0.049059749 0.454986662
0.087630294 -0.048817251 0.452512115
0.089691371 -0.048770275 0.451842517
0.091872528 -0.048789304 0.451775461
0.094190821 -0.048878673 0.452350080
0.096493565 -0.048956200 0.452804744
0.098637909 -0.048951779 0.452491283
0.102436416 -0.049750958 0.459591538
0.106617332 -0.050698604 0.468042612
0.111608014 -0.051984642 0.479593217
0.116435595 -0.053144649 0.489954382
0.120227233 -0.053795516 0.495598137
0.122542709 -0.053773560 0.495027006
0.125422791 -0.053995542 0.496687531
0.127962366 -0.054065462 0.496934354
0.130416423 -0.054097407 0.496818215
0.132937178 -0.054155417 0.496927530
0.135413513 -0.054193672 0.496841073
0.137904868 -0.054236561 0.496782631
0.140644789 -0.054374129 0.497575730
0.143157035 -0.054420613 0.497519135
0.145660549 -0.054462351 0.497403771
0.148214877 -0.054521497 0.497431397
0.150764644 -0.054577153 0.497411102
0.153383404 -0.054655712 0.497582763
0.155923203 -0.054704200 0.497463822
0.158478513 -0.054756626 0.497363925
0.160998940 -0.054795675 0.497125566
0.163924739 -0.054969557 0.498092026
0.166577771 -0.055048324 0.498177528
0.169075146 -0.055074181 0.497766733
0.171694249 -0.055138465 0.497685701
0.174187869 -0.055161286 0.497212976
0.177004457 -0.055284418 0.497626185
0.179846838 -0.055412225 0.498061925
0.182307228 -0.055420563 0.497405648
0.184979752 -0.055492382 0.497302026
0.187821403 -0.055612486 0.497612506
0.190542921 -0.055694453 0.497563362
0.192997217 -0.055697288 0.496790856
0.196094304 -0.055883318 0.497634590
0.199206293 -0.056069005 0.498455554
0.201802641 -0.056106877 0.497945398
0.204382002 -0.056139238 0.497372299
0.207229048 -0.056243554 0.497422427
0.209737360 -0.056254636 0.496635169
0.212342665 -0.056291245 0.496062517
0.215437487 -0.056455366 0.496601582
0.218797743 -0.056684598 0.497699887
0.221610144 -0.056768417 0.497510672
0.223933488 -0.056726567 0.496215612
0.213954732 -0.053603575 0.468018264
0.211290717 -0.052361213 0.456312835
0.214690223 -0.052632108 0.457813323
0.227538168 -0.055189017 0.479157299
0.238091618 -0.057141561 0.495188922
0.241304144 -0.057310075 0.495737016
0.244820073 -0.057546508 0.496880233
0.248017475 -0.057704095 0.497354239
0.250706255 -0.057741433 0.496809870
0.253567517 -0.057817422 0.496620893
0.256220877 -0.057845049 0.496043533
0.258824378 -0.057861067 0.495398074
0.261978179 -0.057998676 0.495827615
0.265978813 -0.058319379 0.497856379
0.268390536 -0.058288977 0.496927947
0.271515816 -0.058412720 0.497359842
0.274429351 -0.058489095 0.497437090
0.276871085 -0.058464494 0.496709168
0.279702127 -0.058521830 0.496734113
0.282299221 -0.058529697 0.496398300
0.283776045 -0.058307286 0.494173080
-0.274207860 -0.053281587 0.473756194
-0.272874117 -0.053495955 0.475932270
-0.270894974 -0.053586565 0.477068514
-0.269294679 -0.053754482 0.478952348
-0.266886413 -0.053762786 0.479470700
-0.264680237 -0.053812373 0.480410516
-0.262762576 -0.053922158 0.481939346
-0.260500431 -0.053962726 0.482898086
-0.258024156 -0.053959355 0.483507842
-0.255078882 -0.053856969 0.483269602
-0.252421647 -0.053814076 0.483600080
-0.250029445 -0.053827483 0.484469414
-0.248089328 -0.053939536 0.486258388
-0.244986147 -0.053798519 0.485791713
-0.242396504 -0.053768653 0.486348957
-0.239778593 -0.053731937 0.486862779
-0.237312302 -0.053728882 0.487697154
-0.234903678 -0.053739063 0.488664865
-0.231665030 -0.053557672 0.487898022
